ply
format ascii 1.0
element vertex 1245
property float x
property float y
property float z
property uchar red
property uchar green
property uchar blue
end_header
-21.6799 -54.9846 31.3858  255 255 255
-20.5164 -63.0992 40.7333  255 255 255
-20.6023 -59.0014 35.6268  255 255 255
-20.3137 -56.464 32.852  255 255 255
-22.5195 -7.60688 18.1103  255 255 255
-21.0601 -34.268 26.3237  255 255 255
-18.3164 53.3378 -59.9429  255 255 255
-18.6581 56.8164 -54.6231  255 255 255
-21.7022 82.0405 -29.2113  255 255 255
-22.4867 98.4576 -26.954  255 255 255
-16.9528 -59.3399 35.9631  255 255 255
-16.6591 -58.9709 35.4553  255 255 255
-13.1347 38.273 -74.9696  255 255 255
-16.463 -63.0776 38.4056  255 255 255
-16.283 -59.2891 35.7924  255 255 255
-16.3543 -61.4941 38.4702  255 255 255
-15.8465 -58.3499 34.8363  255 255 255
-15.8103 -61.1234 38.2037  255 255 255
-15.3684 -60.9542 38.0821  255 255 255
-16.5116 110.388 -35.0158  255 255 255
-16.4881 121.176 -39.3696  255 255 255
-16.3011 -2.95622 23.1094  255 255 255
-15.7279 110.06 -36.4646  255 255 255
-9.98579 51.5883 -66.2547  255 255 255
-16.0669 -15.9399 30.9922  255 255 255
-14.891 106.347 -34.8461  255 255 255
-14.8113 117.51 -39.4577  255 255 255
-14.8632 122.12 -40.6427  255 255 255
-13.5575 125.363 -42.3625  255 255 255
-13.7306 -59.1152 35.5138  255 255 255
-12.8963 112.894 -37.7877  255 255 255
-12.8963 112.894 -37.7877  255 255 255
-13.5869 -58.6491 35.5617  255 255 255
-11.2459 80.9071 -40.1981  255 255 255
-10.5599 77.2602 -43.1511  255 255 255
-10.5996 77.1149 -42.9246  255 255 255
-12.4455 104.618 -34.8827  255 255 255
-12.364 106.725 -35.9206  255 255 255
-14.5658 -2.65776 25.0703  255 255 255
-12.1036 112.55 -39.1378  255 255 255
-12.096 111.995 -38.4836  255 255 255
-14.4071 -21.2806 33.5282  255 255 255
-13.4741 -1.13347 24.0886  255 255 255
-13.4105 -1.06932 23.7274  255 255 255
-10.3948 117.309 -38.4645  255 255 255
-9.85478 110.039 -38.0062  255 255 255
-9.34252 121.872 -42.7861  255 255 255
-7.52275 80.2795 -43.3553  255 255 255
-9.64339 99.0365 -32.5753  255 255 255
-4.06329 17.4135 -52.4625  255 255 255
-6.68163 75.0751 -47.2923  255 255 255
-13.0098 -25.5549 34.2163  255 255 255
-12.6393 -33.1409 34.0274  255 255 255
-8.42783 109.191 -36.9138  255 255 255
-8.42783 109.191 -36.9138  255 255 255
-7.13852 111.24 -40.8042  255 255 255
-7.26934 103.356 -36.5275  255 255 255
-7.26934 103.356 -36.5275  255 255 255
-7.05287 115.779 -41.6595  255 255 255
-11.7096 -36.0132 32.1039  255 255 255
-6.92907 98.8483 -34.8028  255 255 255
-6.92453 98.9869 -34.9888  255 255 255
-6.74855 120.735 -42.4567  255 255 255
-6.9478 93.7024 -31.5287  255 255 255
-6.1276 114.045 -41.4204  255 255 255
-11.9461 -19.0246 33.042  255 255 255
-11.9709 -22.2492 34.6661  255 255 255
-5.434 88.6322 -37.0102  255 255 255
-2.11612 70.8598 -55.9148  255 255 255
-5.42311 94.2357 -32.4297  255 255 255
-4.96729 100.592 -36.5719  255 255 255
-3.69741 84.0891 -41.312  255 255 255
-4.50759 123.038 -43.7925  255 255 255
-10.2113 0.355941 24.6122  255 255 255
-1.39051 85.6046 -43.8009  255 255 255
1.51434 72.8405 -58.8462  255 255 255
3.69171 60.6953 -69.599  255 255 255
-9.92447 -5.13674 30.4081  255 255 255
-8.44915 0.720816 24.2429  255 255 255
0.868944 86.3826 -44.9584  255 255 255
-0.919254 101.736 -36.6643  255 255 255
7.39524 55.2224 -74.724  255 255 255
-8.09691 -3.96957 30.2245  255 255 255
-8.01672 -11.4861 34.7047  255 255 255
-7.70764 -11.6449 34.4896  255 255 255
2.69155 113.657 -35.5885  255 255 255
6.81188 80.1082 -54.8993  255 255 255
10.5464 60.1533 -70.4297  255 255 255
7.23595 87.8796 -48.5146  255 255 255
7.03861 106.87 -41.9013  255 255 255
7.02167 106.821 -41.84  255 255 255
8.14879 93.9933 -42.861  255 255 255
9.30286 89.819 -47.8989  255 255 255
8.10556 100.945 -41.0031  255 255 255
8.06881 100.673 -40.5579  255 255 255
9.63063 120.005 -44.3047  255 255 255
-5.06556 -20.5318 35.4151  255 255 255
14.9837 76.0044 -64.733  255 255 255
14.8725 75.8553 -64.345  255 255 255
-4.84099 -14.9922 36.3588  255 255 255
13.7216 86.9095 -54.3234  255 255 255
12.0808 112.665 -47.2928  255 255 255
-4.0813 -8.73387 34.2932  255 255 255
12.3527 98.7347 -40.0923  255 255 255
19.1418 72.4955 -71.253  255 255 255
16.1519 90.1961 -53.28  255 255 255
23.0183 61.9331 -82.9838  255 255 255
21.2299 71.1353 -73.5037  255 255 255
17.3731 90.4477 -53.5578  255 255 255
16.5278 114.048 -49.1966  255 255 255
16.4968 113.884 -48.9256  255 255 255
17.6115 91.729 -52.5717  255 255 255
23.5184 67.6226 -78.5899  255 255 255
18.0432 118.301 -50.8001  255 255 255
18.6776 92.0021 -53.1914  255 255 255
18.0586 108.479 -47.3723  255 255 255
26.0801 38.5054 -78.0647  255 255 255
22.4704 89.9205 -58.8083  255 255 255
19.9371 110.297 -47.4749  255 255 255
19.9371 110.297 -47.4749  255 255 255
20.114 102.126 -45.4977  255 255 255
1.17382 -35.3207 35.2694  255 255 255
3.22934 -42.948 28.832  255 255 255
1.93411 -14.9488 35.8367  255 255 255
32.6776 85.9747 -70.9944  255 255 255
1.50262 -31.5213 38.4409  255 255 255
32.3589 92.3991 -64.567  255 255 255
32.3589 92.3991 -64.567  255 255 255
30.64 98.1147 -55.9888  255 255 255
44.2627 61.403 -98.2927  255 255 255
-79.5098 2.66983 96.835  255 255 255
-162.338 99.2844 -115.141  255 255 255
-149.133 110.298 -85.5411  255 255 255
-138.372 102.049 -73.3402  255 255 255
-127.058 114.384 -51.9996  255 255 255
-131.254 122.009 -59.0656  255 255 255
-127.117 120.525 -54.439  255 255 255
-115.283 91.4217 -38.5421  255 255 255
-124.958 117.938 -52.5661  255 255 255
-136.414 143.336 -71.017  255 255 255
-107.264 70.1937 -39.1153  255 255 255
-92.8475 61.2458 -16.7118  255 255 255
-74.0882 -14.545 -12.0954  255 255 255
-85.7891 48.3872 -15.8024  255 255 255
-83.4366 63.5051 0.504474  255 255 255
-106.295 122.516 -44.5553  255 255 255
-80.329 60.6212 -4.58545  255 255 255
-80.2519 45.398 -18.9043  255 255 255
-80.2878 40.4895 -22.6178  255 255 255
-97.1822 119.557 -41.9434  255 255 255
-95.7059 121.99 -36.9654  255 255 255
-78.012 56.011 -10.4297  255 255 255
-78.1517 56.1889 -10.9471  255 255 255
-78.414 41.2738 -24.0828  255 255 255
-77.1975 63.4854 -4.34047  255 255 255
-93.9363 120.137 -38.6523  255 255 255
-77.977 34.5557 -31.4045  255 255 255
-77.5148 38.3279 -26.7107  255 255 255
-80.8521 83.702 -9.5349  255 255 255
-77.2238 28.0795 -37.1662  255 255 255
-74.6065 64.4826 -5.82361  255 255 255
-74.2913 53.3561 -17.2192  255 255 255
-75.7009 90.7568 -11.1925  255 255 255
-70.9132 36.6211 -34.3116  255 255 255
-74.9214 94.5054 -13.0369  255 255 255
-65.5732 66.0401 -10.5553  255 255 255
-63.0735 68.508 -9.33381  255 255 255
-39.3388 -51.6586 27.0805  255 255 255
-87.1282 195.064 -104.378  255 255 255
-59.4468 61.3986 -21.6563  255 255 255
-59.3939 61.1796 -21.2768  255 255 255
-50.5608 -4.34346 -24.1647  255 255 255
-38.7425 -48.0321 24.406  255 255 255
-49.1684 -3.80437 -24.3256  255 255 255
-56.2728 66.7158 -18.2679  255 255 255
-53.8232 28.7508 -51.6498  255 255 255
-43.4607 -14.2656 -13.0273  255 255 255
-53.2729 71.8569 -14.2704  255 255 255
-32.6957 -61.5805 40.2406  255 255 255
-44.2939 -9.12088 -19.4218  255 255 255
-34.1462 -51.2339 28.1119  255 255 255
-50.702 72.5042 -15.2773  255 255 255
-32.9428 -53.7545 30.5844  255 255 255
-31.3985 -59.6818 37.3264  255 255 255
-31.3996 -59.643 37.3676  255 255 255
-49.1431 72.4587 -17.2086  255 255 255
-44.0702 16.0091 -47.4135  255 255 255
-45.813 63.4955 -31.8986  255 255 255
-27.84 -62.1194 40.3733  255 255 255
-42.7898 91.2015 -18.2397  255 255 255
-38.9736 76.3087 -22.5904  255 255 255
-26.3538 -55.8238 32.7819  255 255 255
-43.8773 218.647 -129.916  255 255 255
-22.4817 -64.685 41.9475  255 255 255
-22.7907 -55.3889 31.903  255 255 255
-23.4624 -4.14338 9.47378  255 255 255
-24.4091 64.2497 -45.3573  255 255 255
-25.0969 80.5613 -29.2075  255 255 255
-20.7425 -4.99283 15.1396  255 255 255
-18.5122 -57.3515 33.6942  255 255 255
-18.3522 -65.2002 42.8876  255 255 255
-17.6022 16.72 -49.389  255 255 255
-19.8716 -0.876532 6.00118  255 255 255
-16.6101 -61.6996 38.6662  255 255 255
-16.2155 -58.4573 34.9592  255 255 255
-15.9061 -29.1335 36.1363  255 255 255
-9.90979 60.5147 -59.0579  255 255 255
-9.90979 60.5147 -59.0579  255 255 255
-8.33116 68.1634 -54.0595  255 255 255
-5.19781 214.227 -130.268  255 255 255
-11.2127 100.43 -34.1487  255 255 255
-8.93842 90.0468 -33.1835  255 255 255
-12.9758 -21.9601 34.0859  255 255 255
-6.45586 116.317 -38.9419  255 255 255
-11.0874 -37.2468 31.5752  255 255 255
-3.51779 82.6863 -44.5532  255 255 255
-4.73602 118.845 -43.3127  255 255 255
-4.11237 87.3305 -39.7085  255 255 255
1.58006 27.0831 -63.3271  255 255 255
-10.125 -60.1941 36.4181  255 255 255
-11.221 -16.0748 33.6566  255 255 255
-11.215 -16.0535 33.6021  255 255 255
1.16061 72.9559 -56.5294  255 255 255
-9.41479 0.571591 24.5964  255 255 255
6.54338 52.1699 -78.476  255 255 255
-8.43716 -45.91 31.9278  255 255 255
-8.56752 -60.508 36.474  255 255 255
-8.30911 -3.23544 29.8298  255 255 255
8.75484 69.9903 -65.3302  255 255 255
-7.44591 -20.3089 36.2361  255 255 255
-7.05941 -6.04306 33.4169  255 255 255
5.99134 90.7153 -44.7475  255 255 255
7.93964 87.6307 -49.5943  255 255 255
-6.41589 -14.7425 36.0495  255 255 255
12.1083 85.52 -54.9821  255 255 255
10.4774 93.1658 -45.7335  255 255 255
-4.39506 -38.6689 33.3653  255 255 255
10.3768 120.086 -43.0086  255 255 255
10.7664 119.801 -44.2069  255 255 255
16.8308 75.0725 -65.3809  255 255 255
17.0313 75.4309 -66.1856  255 255 255
16.8308 75.0725 -65.3809  255 255 255
-3.73395 -9.91877 34.339  255 255 255
19.175 72.5409 -71.5033  255 255 255
15.2611 91.1826 -51.8934  255 255 255
19.96 75.8004 -69.137  255 255 255
23.9448 73.3061 -73.7698  255 255 255
19.7971 88.7508 -55.2398  255 255 255
25.4942 37.0417 -76.361  255 255 255
-1.1879 -11.3446 35.7128  255 255 255
21.358 92.0971 -55.7895  255 255 255
-0.78827 -14.9508 35.4133  255 255 255
2.63851 -1.87086 23.1291  255 255 255
22.4754 86.9198 -53.7424  255 255 255
-0.230865 -30.2113 37.6542  255 255 255
22.3973 97.895 -47.8664  255 255 255
29.4938 82.5236 -70.9805  255 255 255
2.95377 -43.2335 28.7739  255 255 255
32.8057 74.4357 -79.5006  255 255 255
30.6853 86.9837 -69.1451  255 255 255
33.3731 77.3394 -78.8057  255 255 255
28.4504 98.6442 -52.12  255 255 255
30.6483 97.2404 -56.982  255 255 255
-85.5941 -37.5379 16.1006  255 255 255
-199.488 146.619 -152.507  255 255 255
-190.443 134.706 -145.182  255 255 255
-117.495 28.0686 -58.7617  255 255 255
-132.275 85.5973 -73.2855  255 255 255
-128.337 111.714 -50.0027  255 255 255
-128.126 80.6612 -69.6792  255 255 255
-128.126 80.6612 -69.6792  255 255 255
-123.378 89.2236 -55.5953  255 255 255
-122.724 79.9136 -60.211  255 255 255
-117.993 95.3016 -39.9658  255 255 255
-100.561 64.8996 -29.6779  255 255 255
-81.4782 49.8111 -14.4854  255 255 255
-80.313 73.1775 -3.92792  255 255 255
-76.9136 64.7181 -4.51574  255 255 255
-76.1202 39.1148 -28.151  255 255 255
-77.2993 84.9074 -9.24339  255 255 255
-77.2993 84.9074 -9.24339  255 255 255
-76.7342 87.4839 -10.4178  255 255 255
-71.9121 35.2361 -34.1531  255 255 255
-72.0707 53.1549 -21.3542  255 255 255
-69.4476 36.1709 -35.5255  255 255 255
-74.0452 98.7822 -15.5758  255 255 255
-78.8554 150.178 -60.6986  255 255 255
-59.7574 61.9134 -19.8695  255 255 255
-54.0161 57.0462 -29.1301  255 255 255
-49.2899 73.9273 -17.7231  255 255 255
-27.0605 -61.292 38.8548  255 255 255
-26.1506 -62.8294 40.5892  255 255 255
-25.7937 -61.9022 39.4763  255 255 255
-26.3486 -57.5527 34.276  255 255 255
-26.3599 -57.1356 35.3902  255 255 255
-37.0611 74.4086 -24.9919  255 255 255
-24.7042 -57.0222 33.5828  255 255 255
-27.2151 -27.072 20.6706  255 255 255
-41.4829 157.038 -73.4788  255 255 255
-23.3407 -57.4524 31.3647  255 255 255
-20.4284 -59.6954 36.7014  255 255 255
-18.033 -60.5618 36.3566  255 255 255
-16.4264 37.3113 -71.4744  255 255 255
-15.9759 -66.3897 44.2215  255 255 255
-17.175 -28.0359 35.3351  255 255 255
-15.3657 81.4714 -35.1305  255 255 255
-15.3443 -29.5812 37.0142  255 255 255
-12.4279 101.632 -36.086  255 255 255
-13.7622 -27.4458 35.6689  255 255 255
-8.40462 81.1065 -40.7609  255 255 255
-8.40462 81.1065 -40.7609  255 255 255
-13.2396 -22.6467 35.0363  255 255 255
-4.3327 83.9247 -43.9336  255 255 255
-10.2936 -0.523362 25.7828  255 255 255
-8.41336 -23.8632 35.8922  255 255 255
-6.45135 0.543946 24.1398  255 255 255
3.23646 113.419 -37.8175  255 255 255
-5.19654 -6.72535 32.7713  255 255 255
-5.28085 -6.76611 32.9855  255 255 255
16.548 61.6896 -75.6919  255 255 255
18.0387 62.0147 -80.0975  255 255 255
19.522 62.9779 -77.9659  255 255 255
-4.01179 -30.5542 38.3266  255 255 255
-2.78149 -6.94331 33.5322  255 255 255
28.2679 65.6475 -86.5896  255 255 255
-1.32133 -33.4847 36.8851  255 255 255
-0.237701 -10.808 35.1506  255 255 255
2.93604 -24.2945 35.631  255 255 255
-84.9998 -36.3923 16.4047  255 255 255
-158.414 102.44 -102.844  255 255 255
-159.486 104.329 -106.453  255 255 255
-150.244 95.7017 -100.444  255 255 255
-104.068 75.0285 -29.6817  255 255 255
-105.364 57.1532 -45.1842  255 255 255
-131.622 166.157 -81.2297  255 255 255
-85.8981 35.4887 -31.7084  255 255 255
-102.722 119.324 -38.2262  255 255 255
-79.4605 23.3591 -39.7231  255 255 255
-94.5507 118.743 -38.211  255 255 255
-77.8111 82.6865 -8.12162  255 255 255
-80.9094 143.498 -56.9927  255 255 255
-57.0137 31.4037 -49.145  255 255 255
-29.6389 -60.0934 37.9342  255 255 255
-29.0229 -56.7541 33.9021  255 255 255
-26.3503 -26.7236 23.2174  255 255 255
-21.9241 -64.6082 40.0589  255 255 255
-19.4517 -58.8612 35.5163  255 255 255
-19.4698 -57.7381 34.4431  255 255 255
-17.2967 -24.6386 33.1576  255 255 255
-9.20648 71.4523 -49.4868  255 255 255
-1.49124 21.4776 -56.3741  255 255 255
-1.17079 25.954 -61.5526  255 255 255
-1.52563 19.4908 -53.1446  255 255 255
-4.61572 99.601 -35.3002  255 255 255
-3.36513 88.347 -38.7569  255 255 255
-8.74711 -59.5287 35.5173  255 255 255
-1.49266 115.114 -38.665  255 255 255
-7.98393 -22.0686 34.1114  255 255 255
12.9165 69.5279 -69.7062  255 255 255
-5.7214 -36.7444 34.8159  255 255 255
16.469 131.306 -49.3129  255 255 255
-2.3907 -32.8061 37.8256  255 255 255
17.5719 107.476 -46.9134  255 255 255
-0.384133 -39.2789 31.9559  255 255 255
20.2785 102.866 -45.6512  255 255 255
25.3542 121.721 -54.0124  255 255 255
-148.303 92.1751 -87.6737  255 255 255
-142.91 123.277 -60.5336  255 255 255
-149.38 115.607 -86.5747  255 255 255
-134.408 118.847 -56.8084  255 255 255
-118.112 66.7305 -61.2208  255 255 255
-117.124 54.3562 -68.2535  255 255 255
-118.294 59.0932 -68.8066  255 255 255
-94.3609 46.0623 -33.4503  255 255 255
-92.0131 64.2757 -13.492  255 255 255
-113.744 126.234 -52.8144  255 255 255
-81.204 34.1462 -26.7379  255 255 255
-78.4666 35.1635 -29.9875  255 255 255
-52.7489 -42.5762 19.1094  255 255 255
-76.2749 30.44 -34.7478  255 255 255
-98.5601 142.405 -51.1161  255 255 255
-42.192 -57.4862 36.3773  255 255 255
-37.5893 -50.8825 26.8255  255 255 255
-56.6342 69.4819 -12.7804  255 255 255
-67.866 153.988 -66.7678  255 255 255
-25.3831 -35.9428 21.9535  255 255 255
-22.8773 -62.9768 40.0448  255 255 255
-22.3453 -64.4159 40.6327  255 255 255
-22.3453 -64.4159 40.6327  255 255 255
-22.0648 -63.0348 42.114  255 255 255
-24.0373 -23.5111 32.1311  255 255 255
-27.7936 103.451 -32.3311  255 255 255
-18.9375 -62.7431 39.9325  255 255 255
-15.6573 -32.6037 35.4924  255 255 255
-14.5838 115.687 -35.6472  255 255 255
-7.49605 68.215 -54.37  255 255 255
-12.8049 -27.9025 36.3493  255 255 255
-12.4808 -28.7574 36.8415  255 255 255
-9.25649 -18.5394 34.2321  255 255 255
-9.03813 -10.9464 33.9248  255 255 255
1.88491 113.136 -39.9157  255 255 255
7.3723 77.497 -55.5687  255 255 255
4.81613 105.238 -41.3285  255 255 255
11.9304 71.5581 -65.7765  255 255 255
6.5629 100.517 -39.1653  255 255 255
16.8014 77.2853 -65.2379  255 255 255
16.2458 98.1401 -41.2945  255 255 255
31.551 99.446 -56.2426  255 255 255
-137.524 115.397 -63.5965  255 255 255
-113.197 94.6264 -30.858  255 255 255
-110.183 56.5627 -53.8278  255 255 255
-100.094 36.71 -49.5219  255 255 255
-66.6233 35.5584 -43.8114  255 255 255
-31.279 79.8172 -25.295  255 255 255
-20.3682 -58.7623 35.6211  255 255 255
-16.0998 83.2532 -34.7007  255 255 255
-14.4974 109.418 -36.8799  255 255 255
-15.1103 -22.4097 33.6275  255 255 255
-14.4551 -4.23273 26.4138  255 255 255
2.2564 91.9488 -39.2453  255 255 255
-6.91554 -28.7609 36.5886  255 255 255
11.4719 101.08 -40.0516  255 255 255
18.7521 74.5812 -69.6759  255 255 255
-3.27341 -12.1476 35.8925  255 255 255
30.2131 70.1091 -80.0094  255 255 255
-96.4934 124.977 -32.8098  255 255 255
-96.4934 124.977 -32.8098  255 255 255
-71.8008 66.4216 -5.38785  255 255 255
-52.4735 71.0543 -17.9984  255 255 255
-28.407 -60.7383 37.876  255 255 255
-23.798 -35.0866 22.8395  255 255 255
-16.7844 -62.2526 38.8069  255 255 255
-7.91868 -45.7961 31.7027  255 255 255
-4.9837 -18.0343 35.9837  255 255 255
21.4198 97.0672 -49.8012  255 255 255
22.9037 99.2641 -43.3837  255 255 255
-30.9584 -59.8796 37.6085  255 255 255
-49.374 88.1716 -10.5268  255 255 255
-29.1054 -59.5627 36.4556  255 255 255
-29.1054 -59.5627 36.4556  255 255 255
-16.0671 -61.1526 38.0225  255 255 255
-13.9511 -60.0538 36.8041  255 255 255
-6.80175 93.0756 -29.5139  255 255 255
-19.3549 -60.1537 37.1808  255 255 255
16.6882 94.769 -47.4505  255 255 255
-25.9617 78.116 -33.9562  255 255 255
-15.7372 61.8004 -52.3534  255 255 255
-46.7882 86.072 -15.7186  255 255 255
-14.0745 81.5427 -38.0563  255 255 255
-4.14677 -30.7035 38.1372  255 255 255
-35.4763 82.8114 -13.4435  255 255 255
-133.801 183.12 -95.5456  255 255 255
-14.0465 165.215 -86.5851  255 255 255
-131.294 171.963 -84.7107  255 255 255
-19.7176 161.26 -83.4028  255 255 255
-7.06609 141.663 -57.884  255 255 255
-80.8562 146.609 -58.7431  255 255 255
-50.5126 150.726 -69.4611  255 255 255
-50.5754 150.916 -69.7278  255 255 255
-135.725 156.614 -74.0252  255 255 255
-81.6284 135.518 -51.5003  255 255 255
-131.643 154.658 -73.429  255 255 255
-144.04 156.301 -75.5388  255 255 255
-96.6413 123.043 -38.7021  255 255 255
-95.6561 123.578 -41.6764  255 255 255
-98.2616 117.273 -43.2914  255 255 255
-50.0449 102.465 -25.8517  255 255 255
-73.8617 95.7319 -14.749  255 255 255
-110.42 120.424 -51.7234  255 255 255
-76.94 84.4153 -10.1152  255 255 255
16.0369 91.735 -51.7106  255 255 255
-22.299 82.2071 -30.7536  255 255 255
15.537 90.625 -51.5559  255 255 255
-17.3548 83.3902 -34.8804  255 255 255
-9.32329 85.1168 -40.1202  255 255 255
-2.56065 85.4936 -45.3173  255 255 255
29.6627 92.6798 -63.7286  255 255 255
-9.19948 82.7229 -40.74  255 255 255
17.929 87.6589 -56.4153  255 255 255
-14.4552 80.1637 -40.0601  255 255 255
11.598 86.3372 -55.7155  255 255 255
-59.8106 68.9766 -13.7696  255 255 255
12.6687 84.105 -57.219  255 255 255
-15.1172 77.2454 -40.2888  255 255 255
-68.1115 65.4157 -11.0557  255 255 255
-16.2863 75.8777 -39.6177  255 255 255
28.7529 86.1525 -67.1771  255 255 255
28.7529 86.1525 -67.1771  255 255 255
43.2834 87.035 -76.1229  255 255 255
15.7876 80.8524 -60.5999  255 255 255
8.31139 79.0193 -57.5004  255 255 255
19.0732 79.4128 -65.2922  255 255 255
-21.3995 71.1608 -41.7453  255 255 255
-21.3995 71.1608 -41.7453  255 255 255
27.8828 79.0664 -72.4789  255 255 255
-40.5993 64.8361 -32.1399  255 255 255
0.549501 72.5429 -56.3309  255 255 255
15.2561 75.3904 -65.6412  255 255 255
-45.1303 63.5417 -30.9554  255 255 255
-1.1427 70.8395 -57.4981  255 255 255
-2.05451 70.5046 -56.8893  255 255 255
-17.1767 67.2573 -47.7848  255 255 255
-22.2866 66.3861 -45.5738  255 255 255
-32.3625 63.6523 -41.2709  255 255 255
-16.9485 65.8334 -49.5184  255 255 255
41.4906 76.2409 -84.6773  255 255 255
21.0676 72.3727 -73.217  255 255 255
10.7258 69.5318 -66.1736  255 255 255
-2.74369 67.1535 -59.6595  255 255 255
46.5382 74.0746 -89.0214  255 255 255
-35.0781 59.852 -42.7347  255 255 255
43.6488 72.885 -88.2646  255 255 255
-54.5125 54.4535 -29.8113  255 255 255
-16.8672 61.3206 -53.382  255 255 255
-16.8672 61.3206 -53.382  255 255 255
-12.7734 60.5387 -56.3462  255 255 255
-31.1961 57.3083 -47.1487  255 255 255
-41.5796 54.938 -39.8102  255 255 255
-41.5571 54.8692 -39.6505  255 255 255
-50.2009 53.1089 -34.2338  255 255 255
11.7449 63.4254 -72.5067  255 255 255
-1.09385 61.2173 -64.6085  255 255 255
-26.2323 57.2163 -50.6414  255 255 255
-1.43393 60.8764 -64.9379  255 255 255
-30.7789 55.9446 -49.2133  255 255 255
-2.33657 60.4255 -65.7616  255 255 255
-16.228 57.7641 -56.9347  255 255 255
32.0474 65.4792 -86.4433  255 255 255
0.20183 59.5508 -66.4373  255 255 255
-40.9981 52.7648 -41.7947  255 255 255
-54.079 50.5773 -34.0446  255 255 255
-28.7494 54.4725 -50.2427  255 255 255
-17.2195 56.3845 -57.5448  255 255 255
43.37 65.5191 -93.6049  255 255 255
-17.5533 55.7816 -57.1665  255 255 255
-17.5489 55.805 -57.2698  255 255 255
-29.2342 52.9608 -51.3663  255 255 255
-41.5905 51.0185 -44.3748  255 255 255
-22.8646 53.6569 -56.1918  255 255 255
-64.3246 46.3973 -30.5364  255 255 255
-13.9364 54.3493 -61.9279  255 255 255
-25.6489 52.3038 -54.3743  255 255 255
-25.7541 51.9873 -53.3229  255 255 255
-22.2006 52.2873 -56.5256  255 255 255
-65.3335 45.1424 -30.5067  255 255 255
-65.3335 45.1424 -30.5067  255 255 255
-30.9956 50.6524 -52.4552  255 255 255
-33.184 49.9017 -50.9954  255 255 255
-27.3022 50.7642 -55.204  255 255 255
-29.3292 50.2916 -54.0908  255 255 255
-8.2896 53.4228 -66.8379  255 255 255
-51.3406 46.6181 -40.6084  255 255 255
-64.9909 44.3545 -32.3516  255 255 255
-25.8907 50.3314 -56.3733  255 255 255
8.84257 55.1751 -77.372  255 255 255
-45.8751 47.2511 -44.9471  255 255 255
-63.988 43.811 -33.165  255 255 255
-46.7792 46.2646 -44.623  255 255 255
-19.556 47.3101 -55.9358  255 255 255
-7.57406 48.7871 -70.2914  255 255 255
-36.279 44.0913 -52.5269  255 255 255
-76.7496 38.2229 -27.6265  255 255 255
-76.5867 38.5296 -28.9275  255 255 255
6.49569 49.6027 -80.145  255 255 255
-15.6823 46.6884 -67.9536  255 255 255
5.6972 48.2036 -81.6407  255 255 255
-60.0326 39.1668 -40.7528  255 255 255
-74.2674 36.3212 -31.1979  255 255 255
-72.3451 36.7628 -33.265  255 255 255
-71.7216 36.749 -33.3337  255 255 255
-78.126 35.9085 -29.8437  255 255 255
-34.3037 41.6082 -58.9133  255 255 255
-77.6614 34.8734 -29.6467  255 255 255
-43.0665 27.7679 -15.1714  255 255 255
-11.7225 40.0743 -76.1356  255 255 255
-29.6841 37.7568 -65.4815  255 255 255
-29.7459 37.3972 -63.8729  255 255 255
-15.4109 38.7732 -74.1553  255 255 255
-33.8085 36.2292 -64.0779  255 255 255
-33.8085 36.2292 -64.0779  255 255 255
10.5875 34.7351 -72.2475  255 255 255
10.3165 34.025 -71.2398  255 255 255
11.5209 33.5568 -71.0683  255 255 255
-52.8145 31.3786 -52.5363  255 255 255
-68.8201 29.7712 -43.2233  255 255 255
-62.52 30.2832 -46.2006  255 255 255
-63.4003 30.0171 -46.1284  255 255 255
-77.971 27.8285 -36.6973  255 255 255
-53.7514 30.5889 -52.53  255 255 255
-80.3896 25.9876 -35.9269  255 255 255
-82.0991 25.6173 -35.6757  255 255 255
-82.7098 25.24 -35.3706  255 255 255
-1.57908 28.1249 -63.2606  255 255 255
-79.863 24.9552 -37.9364  255 255 255
-44.2693 28.6199 -62.0525  255 255 255
-77.7864 24.3282 -40.2527  255 255 255
-65.9056 24.4595 -48.6368  255 255 255
-77.2872 22.8822 -41.4464  255 255 255
-48.0954 16.2343 -48.0735  255 255 255
-18.8713 12.4959 -45.0842  255 255 255
-21.2547 9.14539 -40.7957  255 255 255
-31.9512 8.86918 -41.3821  255 255 255
-34.4408 8.44648 -40.1188  255 255 255
-9.00846 -1.34824 27.4424  255 255 255
-18.3165 2.17902 1.8351  255 255 255
-14.7907 1.13507 7.39049  255 255 255
-16.0383 0.344452 8.66508  255 255 255
-23.9969 5.07721 -33.7946  255 255 255
-16.5081 -0.659425 10.1014  255 255 255
-17.812 -1.06953 10.1701  255 255 255
-27.0214 4.30269 -33.6146  255 255 255
-12.0682 -3.34636 27.6275  255 255 255
-20.278 -0.589705 5.36414  255 255 255
-18.6856 -1.70436 11.9284  255 255 255
-22.5325 -1.12733 5.9985  255 255 255
-18.8558 -1.85941 11.1178  255 255 255
-17.9499 -1.96357 11.9383  255 255 255
-19.2732 -1.96448 11.5742  255 255 255
-19.2478 -1.94547 11.4336  255 255 255
-15.0254 -3.83328 25.5697  255 255 255
-15.5094 -4.25109 25.45  255 255 255
-50.4359 2.65932 -32.3605  255 255 255
-18.8565 -3.16397 13.044  255 255 255
-19.1636 -3.48025 13.4835  255 255 255
-24.8187 -3.22857 8.65307  255 255 255
-19.1469 -3.99915 14.1792  255 255 255
-25.6348 -3.63054 9.25074  255 255 255
-25.2758 -3.9163 9.45745  255 255 255
-25.2758 -3.9163 9.45745  255 255 255
-23.4045 -3.98475 9.45399  255 255 255
-20.277 -5.05725 15.9403  255 255 255
-21.0742 -5.08425 15.3926  255 255 255
-11.8671 -6.83747 30.3351  255 255 255
-24.9869 -1.10215 -27.8463  255 255 255
-24.7771 -0.958558 -29.5288  255 255 255
-23.7923 -4.82981 9.90751  255 255 255
-21.3838 -5.45501 15.6673  255 255 255
-9.83796 -7.75248 31.9989  255 255 255
-26.6022 -5.73955 12.4339  255 255 255
-21.6147 -6.66733 17.1415  255 255 255
-21.9075 -6.68984 17.2918  255 255 255
-60.5036 -3.70297 -24.4051  255 255 255
-22.4595 -7.84757 18.4816  255 255 255
-12.0556 -9.6113 31.6441  255 255 255
-40.8575 -5.19149 -24.061  255 255 255
-2.72054 -10.2607 35.19  255 255 255
-56.9467 208.665 -114.053  255 255 255
-103.484 193.872 -100.01  255 255 255
-115.301 190.517 -95.0819  255 255 255
-111.308 188.985 -94.5478  255 255 255
-111.308 188.985 -94.5478  255 255 255
-115.193 189.507 -95.0177  255 255 255
-110.549 187.973 -94.6104  255 255 255
-34.4115 192.013 -109.564  255 255 255
-38.3277 189.663 -107.681  255 255 255
-101.96 181.607 -92.4467  255 255 255
-98.2652 180.87 -93.1939  255 255 255
-104.736 179.097 -90.3554  255 255 255
-121.746 184.608 -99.938  255 255 255
-127.191 183.333 -98.488  255 255 255
-46.8804 158.139 -74.2995  255 255 255
-29.6826 160.329 -79.9804  255 255 255
-93.4861 143.076 -50.9227  255 255 255
-61.3614 152.024 -66.8192  255 255 255
-62.6136 151.872 -66.6756  255 255 255
-30.0871 158.411 -79.1905  255 255 255
-51.8018 153.061 -69.7895  255 255 255
-55.7234 152.403 -68.7233  255 255 255
-55.7234 152.403 -68.7233  255 255 255
-126.799 170.095 -84.6627  255 255 255
-36.089 155.409 -75.1301  255 255 255
-93.502 141.509 -50.165  255 255 255
-83.1923 145.448 -56.9526  255 255 255
-33.0322 155.504 -76.633  255 255 255
-45.9302 153.261 -72.2884  255 255 255
-52.1465 151.202 -69.1257  255 255 255
-132.331 165.778 -80.5413  255 255 255
-132.905 164.372 -80.1632  255 255 255
-81.2577 143.076 -56.7548  255 255 255
-66.8045 145.688 -62.4687  255 255 255
-54.2602 146.749 -66.6482  255 255 255
-82.4067 139.671 -53.6545  255 255 255
-68.3367 143.131 -60.6493  255 255 255
-65.5178 143.512 -61.7723  255 255 255
4.95814 131.371 -51.89  255 255 255
-32.557 149.224 -74.3044  255 255 255
17.634 130.165 -52.1984  255 255 255
17.6098 129.984 -51.8771  255 255 255
-129.565 159.023 -76.9758  255 255 255
-6.33779 127.483 -46.3079  255 255 255
-132.992 157.906 -75.4087  255 255 255
-131.976 156.336 -74.7367  255 255 255
-137.334 154.677 -71.901  255 255 255
-134.344 153.39 -71.9678  255 255 255
-135.58 153.186 -71.6635  255 255 255
-64.4774 138.671 -59.9096  255 255 255
-17.0049 116.168 -37.6775  255 255 255
-0.0697056 114.284 -37.5188  255 255 255
-99.3553 121.041 -38.8622  255 255 255
-75.4598 102.838 -16.1695  255 255 255
-96.3595 119.397 -42.9839  255 255 255
-100.603 117.06 -41.6212  255 255 255
-50.399 101.604 -24.8781  255 255 255
17.683 109.593 -47.7711  255 255 255
-164.254 145.959 -87.1139  255 255 255
-99.882 114.539 -44.5333  255 255 255
-163.872 145.749 -87.4638  255 255 255
-163.19 144.962 -86.5476  255 255 255
-115.855 107.502 -44.7236  255 255 255
-76.7207 82.9584 -9.87862  255 255 255
13.9845 96.894 -44.9162  255 255 255
8.09097 95.6806 -42.3811  255 255 255
11.7009 91.5666 -48.9558  255 255 255
-83.269 80.2514 -20.659  255 255 255
-27.1698 79.2426 -29.6905  255 255 255
-10.257 81.4082 -41.1292  255 255 255
-10.7592 78.37 -43.3211  255 255 255
-61.0051 67.0852 -14.1023  255 255 255
-61.0051 67.0852 -14.1023  255 255 255
-82.1142 62.4844 -2.30104  255 255 255
29.7972 86.934 -68.0234  255 255 255
-6.98426 77.1303 -46.9229  255 255 255
-4.20089 78.3385 -50.294  255 255 255
20.5415 82.7995 -63.9241  255 255 255
-4.83252 76.6529 -49.5786  255 255 255
-11.8652 74.5552 -45.5926  255 255 255
-23.0329 71.7783 -39.5308  255 255 255
-23.0357 71.7859 -39.5543  255 255 255
-55.7164 64.4376 -20.0901  255 255 255
-59.0406 63.7908 -18.7128  255 255 255
10.6325 78.3215 -59.3238  255 255 255
22.3746 81.2826 -68.1112  255 255 255
-55.3448 63.8252 -21.9017  255 255 255
-41.5301 66.4214 -29.5842  255 255 255
15.8247 77.8725 -63.0501  255 255 255
-41.8346 66.0335 -29.7198  255 255 255
14.5305 77.6515 -62.8942  255 255 255
17.8231 78.3809 -64.9852  255 255 255
-21.5279 70.2195 -41.9972  255 255 255
-152.992 100.862 -97.5043  255 255 255
11.4515 75.9324 -61.5239  255 255 255
-42.291 65.1278 -30.4217  255 255 255
-42.2691 65.1676 -30.5046  255 255 255
-56.1226 61.9386 -22.5062  255 255 255
-56.1226 61.9386 -22.5062  255 255 255
0.201636 73.1705 -56.9924  255 255 255
24.1331 78.0431 -71.7595  255 255 255
-1.77419 71.9455 -54.4812  255 255 255
-19.9679 68.3236 -44.0423  255 255 255
-44.5748 63.5163 -30.2043  255 255 255
0.023184 72.6232 -56.9634  255 255 255
1.34147 72.2726 -57.5398  255 255 255
-15.4904 68.5341 -47.9325  255 255 255
-36.132 64.261 -35.7983  255 255 255
-23.9754 66.1269 -43.814  255 255 255
-48.4787 61.3217 -29.6479  255 255 255
-17.1684 66.3837 -48.7279  255 255 255
39.777 77.3795 -82.7458  255 255 255
14.3978 71.4242 -68.6569  255 255 255
-16.4627 63.4191 -51.9854  255 255 255
-50.1027 56.9906 -32.1376  255 255 255
10.6824 67.1116 -69.4183  255 255 255
10.4631 65.5356 -70.108  255 255 255
22.8309 67.6899 -78.5128  255 255 255
14.206 65.5839 -72.3506  255 255 255
-160.099 74.1425 -103.47  255 255 255
26.981 61.3469 -87.8875  255 255 255
46.744 64.2168 -99.3153  255 255 255
-3.62866 54.3882 -66.3938  255 255 255
27.7282 59.8275 -87.6573  255 255 255
2.55495 54.9934 -74.2356  255 255 255
-8.86114 52.6295 -65.7304  255 255 255
35.6361 59.3073 -94.9952  255 255 255
-75.1468 42.0018 -26.5085  255 255 255
-79.9758 40.8399 -22.6109  255 255 255
-26.7575 47.2846 -55.2463  255 255 255
-12.925 48.4288 -68.2041  255 255 255
-58.5466 41.4585 -38.8909  255 255 255
-72.0446 38.5373 -30.619  255 255 255
-72.1132 38.6989 -31.1506  255 255 255
-31.1083 44.5671 -57.9635  255 255 255
-73.6584 38.3291 -30.8952  255 255 255
-73.9224 38.0084 -30.978  255 255 255
-77.3022 37.0572 -28.6134  255 255 255
-77.3022 37.0572 -28.6134  255 255 255
-14.4941 44.9606 -69.8584  255 255 255
-14.5036 44.9458 -69.8342  255 255 255
-54.4395 39.3069 -44.2552  255 255 255
-58.561 36.1304 -43.594  255 255 255
-76.0524 32.0752 -31.7046  255 255 255
-11.2675 40.2198 -76.0103  255 255 255
-36.1842 35.5095 -61.0841  255 255 255
-36.2229 35.6373 -61.5483  255 255 255
-81.512 29.1299 -33.1219  255 255 255
-51.8586 30.7276 -53.4272  255 255 255
-51.8703 30.7734 -53.6178  255 255 255
4.66686 31.7355 -68.1443  255 255 255
-83.6255 24.9584 -34.5837  255 255 255
-81.718 23.6678 -37.2841  255 255 255
-78.1758 24.133 -40.2286  255 255 255
-83.1076 22.6075 -35.9842  255 255 255
9.33987 23.678 -58.6938  255 255 255
-77.7861 22.7315 -41.8756  255 255 255
7.0742 23.3065 -58.2862  255 255 255
4.65664 22.2849 -56.6343  255 255 255
-69.2838 19.8431 -49.4215  255 255 255
-73.6912 16.4888 -46.334  255 255 255
-7.53598 2.41247 21.5881  255 255 255
-7.60981 2.40314 21.7991  255 255 255
-13.175 12.3243 -45.2933  255 255 255
-17.6591 12.5065 -46.3555  255 255 255
-15.0309 11.2249 -44.1254  255 255 255
-10.8544 0.653628 23.2942  255 255 255
-15.0367 -0.541778 19.9709  255 255 255
-9.97777 -1.76502 27.4334  255 255 255
-15.9937 0.910833 7.92269  255 255 255
-37.0197 7.6032 -39.2152  255 255 255
-16.6679 0.125651 8.80239  255 255 255
-16.6317 0.155675 8.62514  255 255 255
-17.1618 -0.525813 9.67384  255 255 255
-66.9133 5.56515 -34.4812  255 255 255
-17.259 -0.860985 10.1284  255 255 255
-13.6669 -2.92617 25.8413  255 255 255
-9.20188 -3.5347 29.2169  255 255 255
-71.5744 4.62677 -34.3016  255 255 255
-72.8323 3.95534 -32.3791  255 255 255
-18.2221 -2.4571 12.0549  255 255 255
-15.658 -5.08993 25.9879  255 255 255
-7.05877 -6.49266 32.4693  255 255 255
-81.2011 -0.67841 -26.7259  255 255 255
-20.2659 -5.69285 16.0019  255 255 255
-23.8389 -5.18402 10.7941  255 255 255
-11.623 -8.49636 31.4607  255 255 255
-39.2634 189.36 -106.119  255 255 255
-43.5418 187.829 -105.379  255 255 255
-108.445 180.184 -90.1933  255 255 255
-19.1807 167.224 -86.0289  255 255 255
-58.2481 154.712 -69.5984  255 255 255
-87.1968 144.895 -53.8787  255 255 255
-87.1968 144.895 -53.8787  255 255 255
-5.98823 141.832 -58.436  255 255 255
17.8997 133.226 -48.7312  255 255 255
-60.7684 151.058 -66.8371  255 255 255
-63.3833 150.564 -65.9932  255 255 255
-81.7972 145.603 -57.1994  255 255 255
-43.4669 153.787 -72.939  255 255 255
-82.3791 145.486 -57.3943  255 255 255
-73.3587 147.43 -61.275  255 255 255
-93.5496 140.377 -49.498  255 255 255
-80.7485 145.196 -57.6479  255 255 255
-40.0633 153.063 -73.9315  255 255 255
-51.4231 149.959 -68.8663  255 255 255
-91.6437 139.472 -49.8925  255 255 255
-77.3979 144.282 -58.775  255 255 255
-96.8398 138.593 -48.6708  255 255 255
-65.2666 145.399 -62.5176  255 255 255
-42.9789 149.252 -70.3574  255 255 255
7.23199 132.699 -52.1939  255 255 255
-72.7853 143.532 -59.6918  255 255 255
-94.7441 137.04 -48.0706  255 255 255
-75.2759 142.698 -58.3814  255 255 255
-103.148 157.526 -76.2145  255 255 255
-88.9491 137.125 -50.3621  255 255 255
-93.9869 135.753 -48.164  255 255 255
-73.1172 141.277 -58.4399  255 255 255
-9.47597 126.377 -44.7686  255 255 255
-66.1279 141.655 -60.7255  255 255 255
-67.3487 141.193 -60.2999  255 255 255
-67.3487 141.193 -60.2999  255 255 255
18.3959 129.685 -52.9593  255 255 255
-78.7386 138.104 -55.498  255 255 255
-77.364 138.36 -55.957  255 255 255
-62.9296 141.04 -61.485  255 255 255
-61.3472 140.767 -61.5506  255 255 255
-65.0749 139.808 -60.1655  255 255 255
0.269922 126.967 -48.8913  255 255 255
-81.6793 115.16 -23.3514  255 255 255
-75.2066 136.726 -55.5652  255 255 255
-58.0473 140.146 -62.4708  255 255 255
-12.9292 122.93 -42.3696  255 255 255
-63.0656 138.212 -59.5458  255 255 255
-63.7034 136.84 -58.9574  255 255 255
-95.6501 124.811 -42.3097  255 255 255
-17.7983 114.755 -37.0157  255 255 255
-99.7783 119.292 -37.3471  255 255 255
-70.1509 104.267 -18.4495  255 255 255
-15.9397 112.184 -36.8095  255 255 255
-95.512 121.349 -42.1052  255 255 255
-94.2055 120.766 -41.9522  255 255 255
-98.8516 118.757 -40.1391  255 255 255
-74.4629 99.4 -15.0874  255 255 255
18.6111 115.182 -50.0673  255 255 255
-14.0965 105.214 -34.7775  255 255 255
-112.068 122.225 -51.8745  255 255 255
-112.247 121.109 -51.4729  255 255 255
-112.309 121.196 -51.5713  255 255 255
-53.7314 97.9173 -22.4372  255 255 255
-12.2496 99.3562 -35.7291  255 255 255
-82.5896 88.9639 -12.3933  255 255 255
-1.13648 97.5182 -36.5481  255 255 255
-114.577 110.449 -46.7066  255 255 255
-115.995 110.344 -46.5192  255 255 255
-118.189 104.793 -43.1719  255 255 255
32.7644 101.576 -54.4552  255 255 255
-44.6921 84.3242 -21.7432  255 255 255
12.735 89.4232 -53.6063  255 255 255
10.9278 88.2243 -51.5456  255 255 255
18.4518 89.4014 -55.6139  255 255 255
-55.5338 70.6647 -12.5553  255 255 255
17.9451 87.57 -57.3545  255 255 255
-46.4487 72.4531 -20.5128  255 255 255
-67.1461 67.125 -7.33592  255 255 255
-65.039 67.9805 -9.44906  255 255 255
22.3818 87.1065 -61.3918  255 255 255
3.15347 83.289 -52.0847  255 255 255
-79.6478 63.4206 -3.2646  255 255 255
-7.59 79.1319 -44.6945  255 255 255
43.3068 89.0894 -74.8723  255 255 255
-27.0043 72.6686 -35.8509  255 255 255
-27.009 72.6754 -35.8096  255 255 255
43.0857 89.5533 -80.6795  255 255 255
-20.5864 73.3726 -39.9073  255 255 255
-41.9439 68.3909 -27.5817  255 255 255
-4.19166 75.4085 -50.3687  255 255 255
56.6019 87.0153 -86.2563  255 255 255
45.2544 80.8836 -83.698  255 255 255
-2.91176 71.0077 -56.0705  255 255 255
-67.9758 57.7075 -17.8174  255 255 255
-4.86263 69.3612 -55.9329  255 255 255
53.5492 79.6467 -90.3462  255 255 255
-68.9935 56.3549 -18.3341  255 255 255
-68.9935 56.3549 -18.3341  255 255 255
11.2629 70.9392 -67.108  255 255 255
22.2251 69.0822 -73.5136  255 255 255
36.4459 71.0682 -86.2971  255 255 255
-40.5405 55.7806 -40.2839  255 255 255
8.77288 62.4342 -69.1257  255 255 255
-11.7297 59.6913 -59.6105  255 255 255
-52.7036 51.8665 -34.7927  255 255 255
-52.7283 51.8815 -34.7696  255 255 255
-52.7283 51.8815 -34.7696  255 255 255
-26.4404 53.2793 -53.327  255 255 255
26.5359 59.3772 -90.4487  255 255 255
-59.4542 41.6356 -37.8544  255 255 255
-59.3693 41.5833 -37.5543  255 255 255
-65.8047 37.5888 -37.1996  255 255 255
-72.2401 35.5091 -33.7665  255 255 255
-9.27596 41.5282 -75.3071  255 255 255
-40.2815 36.6552 -56.6547  255 255 255
-65.8019 32.4137 -41.5494  255 255 255
-77.7462 30.0039 -34.6823  255 255 255
-59.2488 30.9801 -48.2294  255 255 255
-59.9103 29.0251 -49.2589  255 255 255
-62.9377 27.404 -48.478  255 255 255
-77.2698 25.3712 -39.5043  255 255 255
11.8272 24.5337 -61.2495  255 255 255
7.93677 21.6062 -57.6811  255 255 255
-77.1961 20.5053 -44.0161  255 255 255
-78.4691 18.0929 -43.8955  255 255 255
-76.0428 17.7654 -46.9303  255 255 255
-22.6252 11.8332 -43.4138  255 255 255
-69.3702 9.33749 -39.0643  255 255 255
-92.5417 8.27455 -35.6854  255 255 255
-8.22746 -2.40927 28.7129  255 255 255
-20.8488 5.22668 -36.205  255 255 255
-11.6187 -2.76723 27.3641  255 255 255
-20.7662 0.160112 3.98597  255 255 255
-24.5013 4.68018 -35.8125  255 255 255
-84.9997 4.04684 -32.2048  255 255 255
-71.6837 4.00788 -32.7316  255 255 255
-85.0699 3.55464 -31.4534  255 255 255
-26.8434 1.34971 -30.879  255 255 255
-25.7268 -1.34278 -26.8918  255 255 255
-68.6719 -1.54614 -26.864  255 255 255
-24.8243 -6.85048 13.5926  255 255 255
-43.5334 -3.464 -26.5539  255 255 255
-11.2815 -8.8275 31.6432  255 255 255
-40.303 -4.89288 -23.2623  255 255 255
-21.5181 -8.3704 19.219  255 255 255
-21.8638 -8.44374 19.3523  255 255 255
15.8749 137.163 -46.8359  255 255 255
16.5747 136.726 -47.0186  255 255 255
-0.834583 127.25 -48.4672  255 255 255
-6.49017 121.88 -43.976  255 255 255
-64.9982 101.43 -19.1923  255 255 255
-104.646 119.268 -44.2703  255 255 255
2.3744 108.362 -41.9811  255 255 255
-99.6602 115.691 -43.3478  255 255 255
-99.5737 115.5 -43.2299  255 255 255
-98.9652 115.228 -43.6301  255 255 255
-110.038 120.939 -51.9658  255 255 255
-111.228 119.128 -50.8497  255 255 255
-115.828 114.181 -48.2615  255 255 255
-114.313 111.514 -46.8392  255 255 255
-116.185 109.365 -45.8636  255 255 255
-116.535 107.285 -45.0663  255 255 255
-116.535 107.285 -45.0663  255 255 255
-112.974 106.039 -45.0139  255 255 255
26.7244 98.1353 -54.5538  255 255 255
-76.3089 74.3804 -4.92361  255 255 255
22.6462 92.3596 -56.3759  255 255 255
-9.50338 85.1703 -40.5112  255 255 255
-33.3005 76.8801 -26.7716  255 255 255
56.1454 96.1347 -77.9624  255 255 255
40.7545 92.7255 -69.8533  255 255 255
25.2973 88.4409 -62.549  255 255 255
0.164542 82.1568 -47.976  255 255 255
1.55395 82.0172 -49.4576  255 255 255
-82.7348 62.1269 -0.314071  255 255 255
-42.3364 70.6712 -25.023  255 255 255
-91.3091 66.8025 -12.7263  255 255 255
56.8886 88.8107 -84.7114  255 255 255
16.3966 78.1689 -63.2967  255 255 255
18.5392 78.2718 -65.256  255 255 255
-36.3083 66.9568 -33.1303  255 255 255
-63.9853 59.3133 -20.2134  255 255 255
-16.6731 66.8253 -48.2965  255 255 255
-2.18414 69.2909 -57.9316  255 255 255
0.962512 62.7484 -66.1783  255 255 255
-25.498 53.9606 -53.0339  255 255 255
46.7222 65.4897 -97.3064  255 255 255
6.64244 57.1475 -71.5748  255 255 255
-7.41622 54 -65.5499  255 255 255
-13.4724 51.1602 -66.0847  255 255 255
-76.9299 37.4522 -27.9131  255 255 255
-61.0809 38.0049 -40.1821  255 255 255
-66.8316 36.827 -38.157  255 255 255
-127.38 48.9043 -78.7632  255 255 255
-81.9679 33.4095 -28.0648  255 255 255
-79.852 33.6624 -29.592  255 255 255
-1.75247 43.9242 -81.1024  255 255 255
-80.5421 32.4819 -29.6333  255 255 255
-27.4856 37.7484 -65.3921  255 255 255
13.8333 38.4094 -77.0756  255 255 255
9.95935 36.6942 -73.4745  255 255 255
-64.1471 30.2396 -44.3108  255 255 255
-53.6631 31.3 -51.8899  255 255 255
-1.74235 27.3661 -62.949  255 255 255
-88.6567 23.9902 -38.7044  255 255 255
1.11025 21.1174 -56.8937  255 255 255
-70.4602 20.3685 -50.1922  255 255 255
-14.1695 11.922 -44.6084  255 255 255
-16.8498 11.4388 -44.271  255 255 255
-18.288 9.36662 -41.8342  255 255 255
-15.9697 -2.16085 22.7891  255 255 255
-29.5108 5.2703 -37.2049  255 255 255
-16.6081 -2.23726 21.2469  255 255 255
-22.2016 -0.468267 4.82082  255 255 255
-32.3058 2.53931 -33.7307  255 255 255
-9.89399 -5.11426 30.3332  255 255 255
-17.328 -5.24612 24.0802  255 255 255
-36.1082 0.216263 -29.9685  255 255 255
-18.0053 -6.24582 23.9552  255 255 255
-18.7425 -6.32359 22.1693  255 255 255
-39.3815 -4.02039 -24.9805  255 255 255
-27.7048 -7.37068 14.3877  255 255 255
-59.8016 196.418 -112.376  255 255 255
-98.699 120.04 -39.7166  255 255 255
-104.6 121.4 -42.5654  255 255 255
-96.629 116.942 -43.4369  255 255 255
-135.137 123.182 -61.6831  255 255 255
39.9495 100.178 -60.979  255 255 255
-12.0008 81.2853 -39.6049  255 255 255
-74.8475 64.9761 -4.32586  255 255 255
-47.647 69.5815 -21.7919  255 255 255
42.2913 87.9578 -74.7201  255 255 255
56.3873 91.0212 -83.7281  255 255 255
-42.5316 67.8807 -28.063  255 255 255
44.8821 86.3718 -79.0228  255 255 255
-7.94496 71.8841 -51.6201  255 255 255
22.6989 74.5966 -71.2696  255 255 255
41.3844 73.2862 -86.856  255 255 255
41.6486 69.9257 -88.2548  255 255 255
32.8269 66.7822 -82.8089  255 255 255
32.7631 63.3609 -88.3946  255 255 255
-33.1166 48.3246 -52.6147  255 255 255
2.98138 51.7904 -74.609  255 255 255
-59.6902 42.3893 -37.4092  255 255 255
-51.6425 39.483 -45.2075  255 255 255
-67.2173 36.1019 -38.372  255 255 255
-13.5939 40.423 -74.2961  255 255 255
-80.117 21.7825 -37.6002  255 255 255
-84.2064 20.3541 -35.8624  255 255 255
5.78878 19.4642 -54.8782  255 255 255
-80.2974 18.3442 -42.2091  255 255 255
-17.0879 9.11754 -41.8371  255 255 255
-93.3774 8.04536 -35.7212  255 255 255
-15.7842 -1.94514 22.0972  255 255 255
-8.23838 -3.18955 29.3778  255 255 255
-33.4825 4.82699 -34.2979  255 255 255
-26.7807 3.08548 -33.8976  255 255 255
-15.7755 -3.879 24.6592  255 255 255
-50.2281 0.437968 -30.6452  255 255 255
-23.5492 -4.21136 9.98815  255 255 255
-26.959 -0.85988 -29.2945  255 255 255
-26.4027 -4.43816 10.1022  255 255 255
-40.5285 -1.85283 -26.9978  255 255 255
-18.5453 -6.83533 23.3762  255 255 255
15.7565 211.8 -134.198  255 255 255
-74.6597 188.951 -104.09  255 255 255
-40.7062 73.5375 -24.9284  255 255 255
-52.0044 69.2174 -19.378  255 255 255
-79.7986 61.3792 -4.40242  255 255 255
-10.1539 73.6457 -45.2447  255 255 255
-0.041791 72.2204 -57.0659  255 255 255
-63.8568 47.1374 -31.319  255 255 255
21.9497 60.1907 -84.2042  255 255 255
-7.70394 53.1594 -67.6529  255 255 255
-8.09554 43.3267 -75.8301  255 255 255
-80.268 24.5201 -38.0286  255 255 255
-80.0983 24.3868 -37.3459  255 255 255
8.75846 21.7204 -55.8704  255 255 255
-18.0742 -1.72075 11.2373  255 255 255
-38.2683 -1.0692 -28.9478  255 255 255
-38.3999 154.552 -74.9372  255 255 255
-38.4228 154.658 -75.063  255 255 255
-74.7542 144.863 -59.6734  255 255 255
-52.4607 148.779 -68.1823  255 255 255
-68.5309 145.428 -62.0724  255 255 255
-68.5309 145.428 -62.0724  255 255 255
-41.1996 148.191 -71.468  255 255 255
17.0019 86.9589 -55.9952  255 255 255
-158.336 98.4495 -110.009  255 255 255
36.196 60.0764 -95.7294  255 255 255
31.7328 58.8798 -92.6793  255 255 255
-11.7731 45.1368 -70.3805  255 255 255
-74.1005 34.3762 -32.5154  255 255 255
-5.73395 43.1099 -76.2987  255 255 255
-19.6917 29.2366 -65.4042  255 255 255
-77.801 23.7164 -41.0855  255 255 255
-18.7976 -1.32672 10.5086  255 255 255
-19.1756 -4.05154 14.2853  255 255 255
-63.3371 144.208 -63.5432  255 255 255
-11.6149 110.172 -38.1027  255 255 255
19.5644 113.13 -50.6585  255 255 255
-12.3124 51.6809 -64.6545  255 255 255
-24.8211 46.5021 -58.2689  255 255 255
-76.5732 30.1851 -35.3051  255 255 255
22.2465 22.6996 -58.6947  255 255 255
-114.215 186.91 -96.2431  255 255 255
-59.1983 147.668 -65.5757  255 255 255
43.6063 68.7611 -90.7587  255 255 255
31.6375 65.1785 -81.1961  255 255 255
-1.21232 52.4282 -70.2077  255 255 255
-29.3775 46.2589 -56.8505  255 255 255
-14.7546 42.286 -68.2458  255 255 255
-80.9393 64.7185 -2.90611  255 255 255
-21.7174 45.3203 -63.0409  255 255 255
6.2121 64.7499 -67.3736  255 255 255
-40.3218 35.6951 -61.2021  255 255 255
52.2998 49.5026 -10.9217  255 255 255
52.2133 49.2657 -11.6655  255 255 255
52.1408 49.2243 -11.5471  255 255 255
50.0548 48.6166 -16.0687  255 255 255
49.4917 34.035 14.2594  255 255 255
50.3282 47.5883 -16.5467  255 255 255
20.2462 74.8607 -70.6881  255 255 255
49.1022 74.7485 -89.7085  255 255 255
53.3012 74.7594 -91.7887  255 255 255
44.3161 73.7125 -87.5881  255 255 255
21.4053 72.2114 -74.8825  255 255 255
15.4371 69.9052 -68.9581  255 255 255
-3.1546 68.2047 -56.7724  255 255 255
-10.6877 67.6932 -52.3143  255 255 255
-2.07925 68.279 -57.5895  255 255 255
49.2288 42.0717 -21.9021  255 255 255
49.2288 42.0717 -21.9021  255 255 255
49.9095 41.8581 -21.7747  255 255 255
8.02564 68.8683 -65.7741  255 255 255
53.2501 71.774 -95.1955  255 255 255
42.7372 69.3658 -88.4223  255 255 255
55.356 70.8691 -98.7162  255 255 255
55.356 70.8691 -98.7162  255 255 255
53.3984 23.696 13.8994  255 255 255
16.0709 66.4129 -72.9651  255 255 255
49.9574 25.4029 8.81104  255 255 255
50.6779 24.9764 9.60257  255 255 255
53.3646 22.3537 14.0112  255 255 255
53.8972 21.3954 15.6115  255 255 255
10.2133 64.648 -69.6249  255 255 255
51.4064 23.7073 10.3938  255 255 255
12.9679 64.5995 -72.2827  255 255 255
14.4278 64.6162 -73.1496  255 255 255
54.7788 19.8716 16.6073  255 255 255
46.3712 66.2124 -95.9706  255 255 255
52.5738 21.3061 12.6643  255 255 255
55.1298 19.2359 15.3456  255 255 255
47.8693 36.9842 -27.5935  255 255 255
26.4982 63.1373 -83.1579  255 255 255
25.453 63.4604 -83.8258  255 255 255
54.8124 18.1117 14.8237  255 255 255
50.1612 34.6492 -25.5489  255 255 255
47.5675 36.6361 -29.7408  255 255 255
5.23293 60.4399 -69.3833  255 255 255
48.2495 36.1423 -29.8146  255 255 255
-6.55222 59.8164 -61.9487  255 255 255
53.1047 19.126 10.8866  255 255 255
-5.89716 59.8292 -63.0309  255 255 255
47.7428 35.1748 -29.8843  255 255 255
50.7626 20.1553 7.03869  255 255 255
53.4169 17.733 11.5484  255 255 255
29.684 61.138 -90.7219  255 255 255
49.0818 21.0763 4.25128  255 255 255
-7.38761 58.1735 -62.4065  255 255 255
51.3805 31.1821 -24.1303  255 255 255
52.5058 17.8517 9.73066  255 255 255
55.4253 15.1134 14.5374  255 255 255
49.7258 19.8627 4.49572  255 255 255
52.732 17.1978 9.78822  255 255 255
51.261 18.1621 7.51454  255 255 255
49.1809 20.0352 3.34053  255 255 255
-11.7682 56.5614 -60.4806  255 255 255
10.1108 57.4686 -75.7915  255 255 255
49.3861 19.4506 4.15501  255 255 255
58.2899 11.8647 19.153  255 255 255
55.1385 26.0009 -18.905  255 255 255
53.1737 15.9084 9.27931  255 255 255
8.88221 56.3112 -76.1915  255 255 255
-13.2901 55.3 -60.4089  255 255 255
-9.19966 55.1821 -63.1177  255 255 255
25.5132 56.1496 -88.3789  255 255 255
50.2625 17.1881 2.75373  255 255 255
49.7833 17.015 3.00202  255 255 255
54.5045 13.1315 11.2226  255 255 255
49.413 16.9849 2.52416  255 255 255
52.8321 14.3173 7.43605  255 255 255
50.7549 16.0779 2.88033  255 255 255
58.6338 9.28162 17.6525  255 255 255
48.7102 17.0769 0.82037  255 255 255
50.1098 15.8289 3.25976  255 255 255
3.02171 53.4301 -74.5166  255 255 255
3.02171 53.4301 -74.5166  255 255 255
49.8675 15.7751 2.43458  255 255 255
50.952 14.8354 4.07112  255 255 255
50.3272 15.2859 2.51394  255 255 255
49.9629 25.8861 -29.8389  255 255 255
55.9166 20.5868 -20.0514  255 255 255
55.6031 10.3952 9.82131  255 255 255
53.8705 21.9691 -24.3876  255 255 255
52.7368 11.828 6.47325  255 255 255
52.9724 11.5799 6.6064  255 255 255
54.2334 10.3331 7.88341  255 255 255
54.1504 10.0366 8.29719  255 255 255
48.2175 14.7052 -2.19035  255 255 255
53.4416 10.6935 6.1516  255 255 255
